2.652343750000000000e+00 1.066406250000000000e+00 1.321299672126770020e+00 4.941176470588235503e-01 5.098039215686274161e-01 5.137254901960783826e-01
1.425781250000000000e+00 1.332031250000000000e+00 1.273169994354248047e+00 6.078431372549019107e-01 5.607843137254902022e-01 5.137254901960783826e-01
3.011718750000000000e+00 8.398437500000000000e-01 1.155817270278930664e+00 5.254901960784313930e-01 5.176470588235294601e-01 5.215686274509804266e-01
2.425781250000000000e+00 2.499791383743286133e+00 1.214843750000000000e+00 0.000000000000000000e+00 0.000000000000000000e+00 0.000000000000000000e+00
1.496093750000000000e+00 2.105468750000000000e+00 1.361636877059936523e+00 6.156862745098039547e-01 5.490196078431373028e-01 4.705882352941176405e-01
1.949218750000000000e+00 1.693508028984069824e+00 1.355468750000000000e+00 5.843137254901961120e-01 5.725490196078431016e-01 5.529411764705882693e-01
1.988281250000000000e+00 1.480468750000000000e+00 1.334452986717224121e+00 5.843137254901961120e-01 5.647058823529411686e-01 5.411764705882352589e-01
1.847656250000000000e+00 1.191406250000000000e+00 1.296547412872314453e+00 5.607843137254902022e-01 5.450980392156862253e-01 5.215686274509804266e-01
2.222656250000000000e+00 1.800781250000000000e+00 1.374423742294311523e+00 5.372549019607842924e-01 5.450980392156862253e-01 5.411764705882352589e-01
1.189979076385498047e+00 1.964843750000000000e+00 1.097656250000000000e+00 6.588235294117646967e-01 5.764705882352940680e-01 4.588235294117646856e-01
2.925781250000000000e+00 8.318753838539123535e-01 1.175781250000000000e+00 5.176470588235294601e-01 5.098039215686274161e-01 5.176470588235294601e-01
3.378906250000000000e+00 2.332971334457397461e+00 1.503906250000000000e+00 0.000000000000000000e+00 0.000000000000000000e+00 0.000000000000000000e+00
1.636718750000000000e+00 1.980468750000000000e+00 7.817868590354919434e-01 8.980392156862745390e-01 7.764705882352941346e-01 6.352941176470587870e-01
3.073078155517578125e+00 1.621093750000000000e+00 1.378906250000000000e+00 3.607843137254901911e-01 3.764705882352941124e-01 4.196078431372549100e-01
2.386718750000000000e+00 1.363281250000000000e+00 1.340410590171813965e+00 5.137254901960783826e-01 5.215686274509804266e-01 5.176470588235294601e-01
1.878906250000000000e+00 1.082031250000000000e+00 1.286438465118408203e+00 5.333333333333333259e-01 5.254901960784313930e-01 5.058823529411764497e-01
3.027343750000000000e+00 1.574218750000000000e+00 1.369570732116699219e+00 3.882352941176470673e-01 4.313725490196078649e-01 5.333333333333333259e-01
1.535156250000000000e+00 2.441406250000000000e+00 1.000793099403381348e+00 5.058823529411764497e-01 4.823529411764705954e-01 4.549019607843137192e-01
1.181792497634887695e+00 2.511718750000000000e+00 1.253906250000000000e+00 5.137254901960783826e-01 4.666666666666666741e-01 4.117647058823529216e-01
2.941406250000000000e+00 2.035156250000000000e+00 1.416459202766418457e+00 2.392156862745098145e-01 2.156862745098039325e-01 1.764705882352941291e-01
1.941406250000000000e+00 8.710937500000000000e-01 1.271996498107910156e+00 5.294117647058823595e-01 5.294117647058823595e-01 5.176470588235294601e-01
2.675781250000000000e+00 1.761718750000000000e+00 1.393117904663085938e+00 4.980392156862745168e-01 5.137254901960783826e-01 5.215686274509804266e-01
1.527343750000000000e+00 2.386718750000000000e+00 1.393552660942077637e+00 5.843137254901961120e-01 5.450980392156862253e-01 5.058823529411764497e-01
2.507731199264526367e+00 1.519531250000000000e+00 1.363281250000000000e+00 5.215686274509804266e-01 5.372549019607842924e-01 5.450980392156862253e-01
2.777343750000000000e+00 2.566406250000000000e+00 1.135602951049804688e+00 4.862745098039215619e-01 5.176470588235294601e-01 5.490196078431373028e-01
1.550781250000000000e+00 1.925781250000000000e+00 7.415173649787902832e-01 9.333333333333333481e-01 8.039215686274510109e-01 6.509803921568627638e-01
1.178938031196594238e+00 1.167968750000000000e+00 1.222656250000000000e+00 5.137254901960783826e-01 4.784313725490196290e-01 4.431372549019607643e-01
2.371093750000000000e+00 2.019531250000000000e+00 1.407310843467712402e+00 5.294117647058823595e-01 5.450980392156862253e-01 5.529411764705882693e-01
1.394531250000000000e+00 1.801153182983398438e+00 7.929687500000000000e-01 7.647058823529411242e-01 6.588235294117646967e-01 5.294117647058823595e-01
1.917968750000000000e+00 2.042968750000000000e+00 1.388074159622192383e+00 5.921568627450980449e-01 5.803921568627451455e-01 5.607843137254902022e-01
1.847656250000000000e+00 2.152343750000000000e+00 1.393424630165100098e+00 5.764705882352940680e-01 5.647058823529411686e-01 5.450980392156862253e-01
1.683593750000000000e+00 2.714843750000000000e+00 1.425186753273010254e+00 5.019607843137254832e-01 5.019607843137254832e-01 4.941176470588235503e-01
2.199218750000000000e+00 1.714843750000000000e+00 1.362975597381591797e+00 5.372549019607842924e-01 5.372549019607842924e-01 5.372549019607842924e-01
3.433593750000000000e+00 1.332031250000000000e+00 1.358122944831848145e+00 0.000000000000000000e+00 0.000000000000000000e+00 0.000000000000000000e+00
2.558593750000000000e+00 1.949218750000000000e+00 1.407023072242736816e+00 5.254901960784313930e-01 5.411764705882352589e-01 5.529411764705882693e-01
2.816406250000000000e+00 1.027343750000000000e+00 1.322491168975830078e+00 4.941176470588235503e-01 5.098039215686274161e-01 5.215686274509804266e-01
2.777343750000000000e+00 1.558593750000000000e+00 1.354828000068664551e+00 6.431372549019608309e-01 6.588235294117646967e-01 7.098039215686274828e-01
2.394531250000000000e+00 2.011718750000000000e+00 1.407182455062866211e+00 5.333333333333333259e-01 5.490196078431373028e-01 5.607843137254902022e-01
2.751283168792724609e+00 1.582031250000000000e+00 1.347656250000000000e+00 2.549019607843137081e-01 2.235294117647058931e-01 2.156862745098039325e-01
1.621093750000000000e+00 1.807766318321228027e+00 7.617187500000000000e-01 8.313725490196078871e-01 7.333333333333332815e-01 6.156862745098039547e-01
1.175781250000000000e+00 2.496093750000000000e+00 1.348286390304565430e+00 5.019607843137254832e-01 4.549019607843137192e-01 3.960784313725490002e-01
1.339843750000000000e+00 2.628906250000000000e+00 1.390969395637512207e+00 5.137254901960783826e-01 5.019607843137254832e-01 4.745098039215686070e-01
2.332031250000000000e+00 1.269531250000000000e+00 1.330891966819763184e+00 5.294117647058823595e-01 5.333333333333333259e-01 5.294117647058823595e-01
3.402343750000000000e+00 1.605118632316589355e+00 1.394531250000000000e+00 0.000000000000000000e+00 0.000000000000000000e+00 0.000000000000000000e+00
3.363281250000000000e+00 1.984236955642700195e+00 1.433593750000000000e+00 0.000000000000000000e+00 0.000000000000000000e+00 0.000000000000000000e+00
3.144531250000000000e+00 1.542968750000000000e+00 1.370105624198913574e+00 3.921568627450980338e-01 4.431372549019607643e-01 5.607843137254902022e-01
2.097656250000000000e+00 1.066406250000000000e+00 1.298384666442871094e+00 5.294117647058823595e-01 5.254901960784313930e-01 5.176470588235294601e-01
1.925781250000000000e+00 1.253906250000000000e+00 1.308934688568115234e+00 5.529411764705882693e-01 5.333333333333333259e-01 5.098039215686274161e-01
3.000265598297119141e+00 8.320312500000000000e-01 1.222656250000000000e+00 5.176470588235294601e-01 5.098039215686274161e-01 5.176470588235294601e-01
2.695065021514892578e+00 2.582031250000000000e+00 1.152343750000000000e+00 5.568627450980392357e-01 5.803921568627451455e-01 5.960784313725490113e-01
2.652343750000000000e+00 1.011718750000000000e+00 1.312648296356201172e+00 5.019607843137254832e-01 5.176470588235294601e-01 5.254901960784313930e-01
2.035156250000000000e+00 9.023437500000000000e-01 1.279201030731201172e+00 5.176470588235294601e-01 5.176470588235294601e-01 5.098039215686274161e-01
2.277343750000000000e+00 2.505718231201171875e+00 1.183593750000000000e+00 5.215686274509804266e-01 4.901960784313725283e-01 4.549019607843137192e-01
3.371093750000000000e+00 2.192042827606201172e+00 1.464843750000000000e+00 0.000000000000000000e+00 0.000000000000000000e+00 0.000000000000000000e+00
1.191406250000000000e+00 1.534649252891540527e+00 1.011718750000000000e+00 6.666666666666666297e-01 5.843137254901961120e-01 4.745098039215686070e-01
3.292968750000000000e+00 9.804687500000000000e-01 1.350345015525817871e+00 4.784313725490196290e-01 4.941176470588235503e-01 5.098039215686274161e-01
1.597656250000000000e+00 8.320312500000000000e-01 1.203335046768188477e+00 5.921568627450980449e-01 5.568627450980392357e-01 5.254901960784313930e-01
1.535156250000000000e+00 1.347656250000000000e+00 1.287021517753601074e+00 6.235294117647058876e-01 5.843137254901961120e-01 5.372549019607842924e-01
2.089843750000000000e+00 2.019531250000000000e+00 1.391436219215393066e+00 5.529411764705882693e-01 5.529411764705882693e-01 5.450980392156862253e-01
3.074218750000000000e+00 1.566406250000000000e+00 1.369891405105590820e+00 5.333333333333333259e-01 5.411764705882352589e-01 5.999999999999999778e-01
2.792968750000000000e+00 1.338349461555480957e+00 1.332031250000000000e+00 6.039215686274509443e-01 6.274509803921568540e-01 6.784313725490196401e-01
1.396992087364196777e+00 1.472656250000000000e+00 1.285156250000000000e+00 6.823529411764706065e-01 6.235294117647058876e-01 5.490196078431373028e-01
1.675781250000000000e+00 2.285156250000000000e+00 1.396508455276489258e+00 6.078431372549019107e-01 5.686274509803921351e-01 5.098039215686274161e-01
3.169780731201171875e+00 2.066406250000000000e+00 1.433593750000000000e+00 3.921568627450980338e-01 3.764705882352941124e-01 3.372549019607843368e-01
1.605468750000000000e+00 1.089843750000000000e+00 1.266694784164428711e+00 5.529411764705882693e-01 5.372549019607842924e-01 5.098039215686274161e-01
3.042968750000000000e+00 8.270341157913208008e-01 1.277343750000000000e+00 5.176470588235294601e-01 5.019607843137254832e-01 5.137254901960783826e-01
2.063080787658691406e+00 2.636718750000000000e+00 1.449218750000000000e+00 5.176470588235294601e-01 5.254901960784313930e-01 5.215686274509804266e-01
3.246093750000000000e+00 9.642034769058227539e-01 1.347656250000000000e+00 4.784313725490196290e-01 4.941176470588235503e-01 5.058823529411764497e-01
3.160156250000000000e+00 1.136718750000000000e+00 1.349524855613708496e+00 6.588235294117646967e-01 6.196078431372549211e-01 5.882352941176470784e-01
2.691406250000000000e+00 1.925781250000000000e+00 1.374114632606506348e+00 1.921568627450980504e-01 1.333333333333333315e-01 5.882352941176470507e-02
2.597656250000000000e+00 1.746093750000000000e+00 1.390878558158874512e+00 5.215686274509804266e-01 5.372549019607842924e-01 5.490196078431373028e-01
2.261718750000000000e+00 2.493316173553466797e+00 1.324218750000000000e+00 0.000000000000000000e+00 0.000000000000000000e+00 0.000000000000000000e+00
1.550781250000000000e+00 1.871093750000000000e+00 7.360030412673950195e-01 9.372549019607843146e-01 8.117647058823529438e-01 6.627450980392156632e-01
2.480468750000000000e+00 2.490527391433715820e+00 1.308593750000000000e+00 0.000000000000000000e+00 0.000000000000000000e+00 0.000000000000000000e+00
1.738281250000000000e+00 1.121093750000000000e+00 1.278308033943176270e+00 5.568627450980392357e-01 5.372549019607842924e-01 5.137254901960783826e-01
1.286736369132995605e+00 1.628906250000000000e+00 1.292968750000000000e+00 6.470588235294117974e-01 5.921568627450980449e-01 5.254901960784313930e-01
2.878906250000000000e+00 1.894531250000000000e+00 1.395434379577636719e+00 3.294117647058823484e-01 2.823529411764705843e-01 2.235294117647058931e-01
1.500916242599487305e+00 2.683593750000000000e+00 1.410156250000000000e+00 5.137254901960783826e-01 5.019607843137254832e-01 4.862745098039215619e-01
1.410156250000000000e+00 1.807301521301269531e+00 7.695312500000000000e-01 8.235294117647058432e-01 7.058823529411765163e-01 5.607843137254902022e-01
2.652343750000000000e+00 1.226305365562438965e+00 1.339843750000000000e+00 5.254901960784313930e-01 5.411764705882352589e-01 5.450980392156862253e-01
1.246093750000000000e+00 1.402343750000000000e+00 1.267904400825500488e+00 6.196078431372549211e-01 5.725490196078431016e-01 5.176470588235294601e-01
3.222656250000000000e+00 1.654383301734924316e+00 1.386718750000000000e+00 5.686274509803921351e-01 5.803921568627451455e-01 6.117647058823529882e-01
3.230468750000000000e+00 2.269531250000000000e+00 1.481301188468933105e+00 0.000000000000000000e+00 0.000000000000000000e+00 0.000000000000000000e+00
1.433593750000000000e+00 1.941406250000000000e+00 7.662495970726013184e-01 9.372549019607843146e-01 8.039215686274510109e-01 6.313725490196078205e-01
2.347656250000000000e+00 1.808593750000000000e+00 1.382378220558166504e+00 5.333333333333333259e-01 5.411764705882352589e-01 5.411764705882352589e-01
1.184017777442932129e+00 2.246093750000000000e+00 1.175781250000000000e+00 6.156862745098039547e-01 5.411764705882352589e-01 4.431372549019607643e-01
1.182448983192443848e+00 1.410156250000000000e+00 1.175781250000000000e+00 5.999999999999999778e-01 5.333333333333333259e-01 4.588235294117646856e-01
1.441406250000000000e+00 2.300781250000000000e+00 1.378881692886352539e+00 6.156862745098039547e-01 5.647058823529411686e-01 5.137254901960783826e-01
2.746093750000000000e+00 8.398437500000000000e-01 1.302628159523010254e+00 5.058823529411764497e-01 5.215686274509804266e-01 5.372549019607842924e-01
1.667968750000000000e+00 1.644531250000000000e+00 1.331907629966735840e+00 6.509803921568627638e-01 6.039215686274509443e-01 5.568627450980392357e-01
1.457031250000000000e+00 1.251335263252258301e+00 1.269531250000000000e+00 5.882352941176470784e-01 5.529411764705882693e-01 5.176470588235294601e-01
3.433593750000000000e+00 9.960937500000000000e-01 1.354449748992919922e+00 5.058823529411764497e-01 5.176470588235294601e-01 5.372549019607842924e-01
2.785156250000000000e+00 1.433593750000000000e+00 1.342447996139526367e+00 6.431372549019608309e-01 6.549019607843137303e-01 6.980392156862744724e-01
2.144531250000000000e+00 1.144326329231262207e+00 1.308593750000000000e+00 5.254901960784313930e-01 5.215686274509804266e-01 5.137254901960783826e-01
1.708649039268493652e+00 1.925781250000000000e+00 9.414062500000000000e-01 9.137254901960784048e-01 7.764705882352941346e-01 6.039215686274509443e-01
1.769531250000000000e+00 2.527343750000000000e+00 1.417661666870117188e+00 5.490196078431373028e-01 5.411764705882352589e-01 5.254901960784313930e-01
2.105468750000000000e+00 1.550781250000000000e+00 1.343071460723876953e+00 5.490196078431373028e-01 5.450980392156862253e-01 5.372549019607842924e-01
2.238281250000000000e+00 2.506901264190673828e+00 1.175781250000000000e+00 5.411764705882352589e-01 5.019607843137254832e-01 4.666666666666666741e-01
2.089843750000000000e+00 1.863281250000000000e+00 1.374247789382934570e+00 5.411764705882352589e-01 5.372549019607842924e-01 5.215686274509804266e-01
1.902343750000000000e+00 1.183347463607788086e+00 1.300781250000000000e+00 5.490196078431373028e-01 5.372549019607842924e-01 5.176470588235294601e-01
1.644531250000000000e+00 2.519531250000000000e+00 1.414117455482482910e+00 5.490196078431373028e-01 5.333333333333333259e-01 5.058823529411764497e-01
2.464843750000000000e+00 9.335937500000000000e-01 1.300329446792602539e+00 4.980392156862745168e-01 5.058823529411764497e-01 5.098039215686274161e-01
2.707031250000000000e+00 1.585073590278625488e+00 1.339843750000000000e+00 1.882352941176470562e-01 1.333333333333333315e-01 7.450980392156862642e-02
1.246093750000000000e+00 8.398437500000000000e-01 1.191383481025695801e+00 5.294117647058823595e-01 4.980392156862745168e-01 4.588235294117646856e-01
2.878906250000000000e+00 8.320312500000000000e-01 1.155742168426513672e+00 5.215686274509804266e-01 5.176470588235294601e-01 5.137254901960783826e-01
2.527343750000000000e+00 1.394531250000000000e+00 1.351433753967285156e+00 5.215686274509804266e-01 5.254901960784313930e-01 5.333333333333333259e-01
1.529575943946838379e+00 2.519531250000000000e+00 1.402343750000000000e+00 5.372549019607842924e-01 5.098039215686274161e-01 4.745098039215686070e-01
3.042968750000000000e+00 2.332031250000000000e+00 1.481894016265869141e+00 4.784313725490196290e-01 4.901960784313725283e-01 5.098039215686274161e-01
2.019531250000000000e+00 1.003906250000000000e+00 1.287343144416809082e+00 5.294117647058823595e-01 5.254901960784313930e-01 5.176470588235294601e-01
2.933593750000000000e+00 1.261718750000000000e+00 1.330432176589965820e+00 2.078431372549019718e-01 1.647058823529411742e-01 1.294117647058823650e-01
2.128906250000000000e+00 2.496093750000000000e+00 1.439422011375427246e+00 5.254901960784313930e-01 5.294117647058823595e-01 5.372549019607842924e-01
1.433593750000000000e+00 1.933593750000000000e+00 7.653513550758361816e-01 9.176470588235293713e-01 7.725490196078431682e-01 6.039215686274509443e-01
2.685298919677734375e+00 2.230468750000000000e+00 1.417968750000000000e+00 2.352941176470588203e-01 2.000000000000000111e-01 1.725490196078431349e-01
2.980468750000000000e+00 1.878906250000000000e+00 1.400525450706481934e+00 3.176470588235293935e-01 2.862745098039215508e-01 2.470588235294117752e-01
2.355468750000000000e+00 2.589843750000000000e+00 1.097932696342468262e+00 0.000000000000000000e+00 0.000000000000000000e+00 0.000000000000000000e+00
3.449218750000000000e+00 1.527343750000000000e+00 1.387753963470458984e+00 0.000000000000000000e+00 0.000000000000000000e+00 0.000000000000000000e+00
3.394531250000000000e+00 1.777343750000000000e+00 1.415722846984863281e+00 0.000000000000000000e+00 0.000000000000000000e+00 0.000000000000000000e+00
3.089843750000000000e+00 2.480468750000000000e+00 1.503631949424743652e+00 3.960784313725490002e-01 3.921568627450980338e-01 3.843137254901961009e-01
1.550781250000000000e+00 2.050781250000000000e+00 1.350242853164672852e+00 7.803921568627451011e-01 6.784313725490196401e-01 5.686274509803921351e-01
2.980468750000000000e+00 9.726562500000000000e-01 1.323263287544250488e+00 4.784313725490196290e-01 4.941176470588235503e-01 4.980392156862745168e-01
2.246093750000000000e+00 1.378906250000000000e+00 1.335765600204467773e+00 5.372549019607842924e-01 5.411764705882352589e-01 5.333333333333333259e-01
2.011718750000000000e+00 2.074387788772583008e+00 1.394531250000000000e+00 5.529411764705882693e-01 5.490196078431373028e-01 5.372549019607842924e-01
1.425781250000000000e+00 1.347656250000000000e+00 1.275437235832214355e+00 6.156862745098039547e-01 5.725490196078431016e-01 5.137254901960783826e-01
2.097656250000000000e+00 2.457031250000000000e+00 1.435671687126159668e+00 5.254901960784313930e-01 5.333333333333333259e-01 5.294117647058823595e-01
1.535156250000000000e+00 1.972656250000000000e+00 7.427904605865478516e-01 8.823529411764705621e-01 7.607843137254901578e-01 6.196078431372549211e-01
1.253906250000000000e+00 2.324218750000000000e+00 1.358154177665710449e+00 5.921568627450980449e-01 5.490196078431373028e-01 5.019607843137254832e-01
1.180306792259216309e+00 1.667968750000000000e+00 1.230468750000000000e+00 5.803921568627451455e-01 5.137254901960783826e-01 4.235294117647058765e-01
2.480468750000000000e+00 1.147392630577087402e+00 1.324218750000000000e+00 5.215686274509804266e-01 5.254901960784313930e-01 5.333333333333333259e-01
2.292968750000000000e+00 2.011718750000000000e+00 1.405136466026306152e+00 5.372549019607842924e-01 5.529411764705882693e-01 5.568627450980392357e-01
2.503906250000000000e+00 8.945312500000000000e-01 1.296274065971374512e+00 5.058823529411764497e-01 5.176470588235294601e-01 5.254901960784313930e-01
2.074218750000000000e+00 2.589843750000000000e+00 1.442561864852905273e+00 5.254901960784313930e-01 5.333333333333333259e-01 5.294117647058823595e-01
2.761718750000000000e+00 2.082031250000000000e+00 1.411087155342102051e+00 6.039215686274509443e-01 6.078431372549019107e-01 6.431372549019608309e-01
1.175781250000000000e+00 2.207031250000000000e+00 1.261636018753051758e+00 5.647058823529411686e-01 5.058823529411764497e-01 4.274509803921568429e-01
3.035156250000000000e+00 1.371093750000000000e+00 1.346217393875122070e+00 7.137254901960784492e-01 7.019607843137254388e-01 7.333333333333332815e-01
1.855468750000000000e+00 8.242187500000000000e-01 1.243698120117187500e+00 5.647058823529411686e-01 5.372549019607842924e-01 5.137254901960783826e-01
2.753906250000000000e+00 1.582031250000000000e+00 1.349499821662902832e+00 2.549019607843137081e-01 2.235294117647058931e-01 2.156862745098039325e-01
1.708847641944885254e+00 1.964843750000000000e+00 9.335937500000000000e-01 9.058823529411764719e-01 7.607843137254901578e-01 5.882352941176470784e-01
2.582031250000000000e+00 1.597656250000000000e+00 1.375046730041503906e+00 5.333333333333333259e-01 5.490196078431373028e-01 5.607843137254902022e-01
1.519531250000000000e+00 1.464843750000000000e+00 1.296173453330993652e+00 6.705882352941175961e-01 6.078431372549019107e-01 5.450980392156862253e-01
1.183592677116394043e+00 1.472656250000000000e+00 1.167968750000000000e+00 6.156862745098039547e-01 5.450980392156862253e-01 4.509803921568627527e-01
2.803694009780883789e+00 1.472656250000000000e+00 1.347656250000000000e+00 6.431372549019608309e-01 6.549019607843137303e-01 6.941176470588235059e-01
3.074218750000000000e+00 1.292968750000000000e+00 1.320160865783691406e+00 2.235294117647058931e-01 1.529411764705882470e-01 1.058823529411764691e-01
3.273814439773559570e+00 2.011718750000000000e+00 1.433593750000000000e+00 2.745098039215686514e-01 2.745098039215686514e-01 2.588235294117647300e-01
2.449218750000000000e+00 1.301190853118896484e+00 1.339843750000000000e+00 5.176470588235294601e-01 5.254901960784313930e-01 5.215686274509804266e-01
1.988281250000000000e+00 1.511718750000000000e+00 1.338456273078918457e+00 5.725490196078431016e-01 5.568627450980392357e-01 5.333333333333333259e-01
2.925781250000000000e+00 8.242187500000000000e-01 1.315861940383911133e+00 4.980392156862745168e-01 5.137254901960783826e-01 5.254901960784313930e-01
2.214843750000000000e+00 1.480468750000000000e+00 1.342478275299072266e+00 5.333333333333333259e-01 5.411764705882352589e-01 5.372549019607842924e-01
3.348247051239013672e+00 2.441406250000000000e+00 1.503906250000000000e+00 0.000000000000000000e+00 0.000000000000000000e+00 0.000000000000000000e+00
2.792968750000000000e+00 1.925907254219055176e+00 1.394531250000000000e+00 6.274509803921568540e-01 6.352941176470587870e-01 6.784313725490196401e-01
1.660303592681884766e+00 2.558593750000000000e+00 1.417968750000000000e+00 5.372549019607842924e-01 5.215686274509804266e-01 4.980392156862745168e-01
1.246093750000000000e+00 1.253906250000000000e+00 1.254830956459045410e+00 5.725490196078431016e-01 5.450980392156862253e-01 5.058823529411764497e-01
2.785156250000000000e+00 2.246093750000000000e+00 1.420113444328308105e+00 1.921568627450980504e-01 1.294117647058823650e-01 5.098039215686274439e-02
2.957031250000000000e+00 1.347656250000000000e+00 1.337451457977294922e+00 6.078431372549019107e-01 6.313725490196078205e-01 6.745098039215686736e-01
3.121093750000000000e+00 1.958225727081298828e+00 1.417968750000000000e+00 3.764705882352941124e-01 3.607843137254901911e-01 3.215686274509804154e-01
2.550781250000000000e+00 2.238281250000000000e+00 1.433211803436279297e+00 5.294117647058823595e-01 5.411764705882352589e-01 5.607843137254902022e-01
2.097656250000000000e+00 1.097656250000000000e+00 1.301461696624755859e+00 5.294117647058823595e-01 5.254901960784313930e-01 5.137254901960783826e-01
1.558593750000000000e+00 2.597656250000000000e+00 1.409423947334289551e+00 5.411764705882352589e-01 5.215686274509804266e-01 5.058823529411764497e-01
3.144531250000000000e+00 1.972656250000000000e+00 1.420621752738952637e+00 2.941176470588235392e-01 2.823529411764705843e-01 2.627450980392156965e-01
1.886718750000000000e+00 2.122975826263427734e+00 1.394531250000000000e+00 5.725490196078431016e-01 5.568627450980392357e-01 5.333333333333333259e-01
1.808593750000000000e+00 2.042968750000000000e+00 1.380846619606018066e+00 6.117647058823529882e-01 5.803921568627451455e-01 5.450980392156862253e-01
2.339843750000000000e+00 2.222656250000000000e+00 1.424462795257568359e+00 5.215686274509804266e-01 5.372549019607842924e-01 5.450980392156862253e-01
3.386718750000000000e+00 1.683593750000000000e+00 1.399926781654357910e+00 0.000000000000000000e+00 0.000000000000000000e+00 0.000000000000000000e+00
1.832031250000000000e+00 1.878906250000000000e+00 1.365982055664062500e+00 6.235294117647058876e-01 5.882352941176470784e-01 5.490196078431373028e-01
2.964843750000000000e+00 1.762843966484069824e+00 1.386718750000000000e+00 2.862745098039215508e-01 2.627450980392156965e-01 2.352941176470588203e-01
1.183593750000000000e+00 2.183593750000000000e+00 1.351493597030639648e+00 5.686274509803921351e-01 5.372549019607842924e-01 5.058823529411764497e-01
3.488281250000000000e+00 9.096316099166870117e-01 1.355468750000000000e+00 0.000000000000000000e+00 0.000000000000000000e+00 0.000000000000000000e+00
3.402343750000000000e+00 2.316406250000000000e+00 1.492975234985351562e+00 0.000000000000000000e+00 0.000000000000000000e+00 0.000000000000000000e+00
1.917968750000000000e+00 1.378906250000000000e+00 1.322605371475219727e+00 5.803921568627451455e-01 5.568627450980392357e-01 5.215686274509804266e-01
3.074218750000000000e+00 1.472656250000000000e+00 1.357892274856567383e+00 4.039215686274509887e-01 4.784313725490196290e-01 6.039215686274509443e-01
3.324218750000000000e+00 2.113281250000000000e+00 1.448800563812255859e+00 0.000000000000000000e+00 0.000000000000000000e+00 0.000000000000000000e+00
2.871093750000000000e+00 2.489531040191650391e+00 1.308593750000000000e+00 0.000000000000000000e+00 0.000000000000000000e+00 0.000000000000000000e+00
3.300781250000000000e+00 8.789062500000000000e-01 1.342229962348937988e+00 4.705882352941176405e-01 4.862745098039215619e-01 4.941176470588235503e-01
1.943500161170959473e+00 8.242187500000000000e-01 1.253906250000000000e+00 5.372549019607842924e-01 5.254901960784313930e-01 5.137254901960783826e-01
1.182344198226928711e+00 2.472656250000000000e+00 1.191406250000000000e+00 5.254901960784313930e-01 4.745098039215686070e-01 4.117647058823529216e-01
1.945285320281982422e+00 1.613281250000000000e+00 1.347656250000000000e+00 5.725490196078431016e-01 5.607843137254902022e-01 5.411764705882352589e-01
2.535156250000000000e+00 8.398437500000000000e-01 1.290588378906250000e+00 4.941176470588235503e-01 5.098039215686274161e-01 5.137254901960783826e-01
2.386718750000000000e+00 1.449218750000000000e+00 1.348739624023437500e+00 5.254901960784313930e-01 5.294117647058823595e-01 5.372549019607842924e-01
2.363281250000000000e+00 8.243455290794372559e-01 1.285156250000000000e+00 5.254901960784313930e-01 5.294117647058823595e-01 5.333333333333333259e-01
1.527343750000000000e+00 2.283341407775878906e+00 9.414062500000000000e-01 4.313725490196078649e-01 4.039215686274509887e-01 3.803921568627450789e-01
2.527343750000000000e+00 1.292968750000000000e+00 1.341860294342041016e+00 5.294117647058823595e-01 5.333333333333333259e-01 5.411764705882352589e-01
2.917968750000000000e+00 2.266654729843139648e+00 1.441406250000000000e+00 4.509803921568627527e-01 4.431372549019607643e-01 4.352941176470588314e-01
3.121093750000000000e+00 2.263793468475341797e+00 1.449218750000000000e+00 0.000000000000000000e+00 0.000000000000000000e+00 0.000000000000000000e+00
3.316406250000000000e+00 1.920730113983154297e+00 1.425781250000000000e+00 0.000000000000000000e+00 0.000000000000000000e+00 0.000000000000000000e+00
2.878906250000000000e+00 1.699218750000000000e+00 1.374956607818603516e+00 4.117647058823529216e-01 4.549019607843137192e-01 5.568627450980392357e-01
2.542968750000000000e+00 2.230468750000000000e+00 1.432635664939880371e+00 5.294117647058823595e-01 5.411764705882352589e-01 5.607843137254902022e-01
1.691406250000000000e+00 2.730468750000000000e+00 1.425074458122253418e+00 0.000000000000000000e+00 0.000000000000000000e+00 0.000000000000000000e+00
1.708698868751525879e+00 1.925781250000000000e+00 9.335937500000000000e-01 9.294117647058823817e-01 7.803921568627451011e-01 5.960784313725490113e-01
2.714843750000000000e+00 2.503906250000000000e+00 1.467771410942077637e+00 4.823529411764705954e-01 4.705882352941176405e-01 4.509803921568627527e-01
2.621093750000000000e+00 1.089843750000000000e+00 1.322772622108459473e+00 5.058823529411764497e-01 5.215686274509804266e-01 5.254901960784313930e-01
2.160156250000000000e+00 2.597656250000000000e+00 1.451273560523986816e+00 4.823529411764705954e-01 4.784313725490196290e-01 4.745098039215686070e-01
2.964843750000000000e+00 2.285156250000000000e+00 1.467498540878295898e+00 4.470588235294117863e-01 4.705882352941176405e-01 4.941176470588235503e-01
2.957031250000000000e+00 2.050781250000000000e+00 1.421851873397827148e+00 2.431372549019607809e-01 2.274509803921568596e-01 1.843137254901960898e-01
1.340109705924987793e+00 1.597656250000000000e+00 1.292968750000000000e+00 7.058823529411765163e-01 6.352941176470587870e-01 5.450980392156862253e-01
2.394531250000000000e+00 1.183593750000000000e+00 1.324694156646728516e+00 5.294117647058823595e-01 5.372549019607842924e-01 5.411764705882352589e-01
3.222656250000000000e+00 1.058593750000000000e+00 1.345404267311096191e+00 5.686274509803921351e-01 5.568627450980392357e-01 5.411764705882352589e-01
2.808593750000000000e+00 2.253906250000000000e+00 1.421910762786865234e+00 1.843137254901960898e-01 1.215686274509803905e-01 4.705882352941176405e-02
2.253906250000000000e+00 2.253906250000000000e+00 1.427076578140258789e+00 5.333333333333333259e-01 5.372549019607842924e-01 5.450980392156862253e-01
1.949804067611694336e+00 1.175781250000000000e+00 1.300781250000000000e+00 5.411764705882352589e-01 5.294117647058823595e-01 5.098039215686274161e-01
2.535156250000000000e+00 1.121093750000000000e+00 1.323966145515441895e+00 5.176470588235294601e-01 5.215686274509804266e-01 5.294117647058823595e-01
1.996093750000000000e+00 8.945312500000000000e-01 1.276623368263244629e+00 5.333333333333333259e-01 5.333333333333333259e-01 5.254901960784313930e-01
3.082031250000000000e+00 2.417968750000000000e+00 1.499904990196228027e+00 4.549019607843137192e-01 4.588235294117646856e-01 4.705882352941176405e-01
2.886718750000000000e+00 8.235830664634704590e-01 1.300781250000000000e+00 5.019607843137254832e-01 4.980392156862745168e-01 5.058823529411764497e-01
1.496093750000000000e+00 2.527343750000000000e+00 1.400398731231689453e+00 5.450980392156862253e-01 5.176470588235294601e-01 4.823529411764705954e-01
1.996093750000000000e+00 1.800781250000000000e+00 1.363242387771606445e+00 5.686274509803921351e-01 5.568627450980392357e-01 5.372549019607842924e-01
2.121093750000000000e+00 2.511718750000000000e+00 1.442932844161987305e+00 5.294117647058823595e-01 5.333333333333333259e-01 5.333333333333333259e-01
2.207031250000000000e+00 1.605468750000000000e+00 1.351832628250122070e+00 5.372549019607842924e-01 5.372549019607842924e-01 5.333333333333333259e-01
2.761718750000000000e+00 2.566406250000000000e+00 1.140807509422302246e+00 5.411764705882352589e-01 5.686274509803921351e-01 5.882352941176470784e-01
3.167968750000000000e+00 1.285156250000000000e+00 1.325410842895507812e+00 2.666666666666666630e-01 1.764705882352941291e-01 1.254901960784313708e-01
1.191406250000000000e+00 2.480468750000000000e+00 1.360979676246643066e+00 5.490196078431373028e-01 5.137254901960783826e-01 4.705882352941176405e-01
2.136718750000000000e+00 2.238281250000000000e+00 1.418108224868774414e+00 5.372549019607842924e-01 5.411764705882352589e-01 5.490196078431373028e-01
2.417968750000000000e+00 1.269531250000000000e+00 1.334156632423400879e+00 5.215686274509804266e-01 5.294117647058823595e-01 5.254901960784313930e-01
1.347656250000000000e+00 2.363281250000000000e+00 1.369952917098999023e+00 4.509803921568627527e-01 4.156862745098039436e-01 3.764705882352941124e-01
2.816406250000000000e+00 1.308593750000000000e+00 1.315439105033874512e+00 2.078431372549019718e-01 1.529411764705882470e-01 1.176470588235294101e-01
1.777343750000000000e+00 1.574218750000000000e+00 1.333373665809631348e+00 6.352941176470587870e-01 5.882352941176470784e-01 5.333333333333333259e-01
3.269531250000000000e+00 1.948462843894958496e+00 1.425781250000000000e+00 2.823529411764705843e-01 2.784313725490196179e-01 2.588235294117647300e-01
2.746093750000000000e+00 1.792968750000000000e+00 1.366229653358459473e+00 1.607843137254902077e-01 1.098039215686274495e-01 6.274509803921568540e-02
1.189593315124511719e+00 2.191406250000000000e+00 1.105468750000000000e+00 6.392156862745097534e-01 5.568627450980392357e-01 4.549019607843137192e-01
2.496093750000000000e+00 2.410156250000000000e+00 1.448818922042846680e+00 5.098039215686274161e-01 5.215686274509804266e-01 5.411764705882352589e-01
1.480468750000000000e+00 2.129565715789794922e+00 1.363281250000000000e+00 6.196078431372549211e-01 5.568627450980392357e-01 4.901960784313725283e-01
2.550781250000000000e+00 2.035156250000000000e+00 1.414289951324462891e+00 5.294117647058823595e-01 5.450980392156862253e-01 5.568627450980392357e-01
2.292968750000000000e+00 2.183593750000000000e+00 1.420731902122497559e+00 5.294117647058823595e-01 5.411764705882352589e-01 5.450980392156862253e-01
1.199218750000000000e+00 2.574218750000000000e+00 1.365018129348754883e+00 5.294117647058823595e-01 5.176470588235294601e-01 5.019607843137254832e-01
1.167968750000000000e+00 1.021588325500488281e+00 9.648437500000000000e-01 4.980392156862745168e-01 4.588235294117646856e-01 4.156862745098039436e-01
3.316406250000000000e+00 1.832031250000000000e+00 1.415652036666870117e+00 3.725490196078431460e-01 3.647058823529411575e-01 3.686274509803921795e-01
3.128906250000000000e+00 2.488281250000000000e+00 1.414583802223205566e+00 0.000000000000000000e+00 0.000000000000000000e+00 0.000000000000000000e+00
1.181506514549255371e+00 2.511718750000000000e+00 1.160156250000000000e+00 5.254901960784313930e-01 4.784313725490196290e-01 4.235294117647058765e-01
2.207031250000000000e+00 8.376894593238830566e-01 1.144531250000000000e+00 5.647058823529411686e-01 5.372549019607842924e-01 5.137254901960783826e-01
1.188305974006652832e+00 1.878906250000000000e+00 1.121093750000000000e+00 6.745098039215686736e-01 5.529411764705882693e-01 4.117647058823529216e-01
3.371093750000000000e+00 8.565559387207031250e-01 1.347656250000000000e+00 4.705882352941176405e-01 4.862745098039215619e-01 5.019607843137254832e-01
1.746093750000000000e+00 1.996093750000000000e+00 1.370454072952270508e+00 6.313725490196078205e-01 5.882352941176470784e-01 5.372549019607842924e-01
2.238281250000000000e+00 1.886718750000000000e+00 1.385544061660766602e+00 5.490196078431373028e-01 5.529411764705882693e-01 5.607843137254902022e-01
2.214843750000000000e+00 1.222656250000000000e+00 1.320271611213684082e+00 5.333333333333333259e-01 5.294117647058823595e-01 5.215686274509804266e-01
3.214843750000000000e+00 2.488281250000000000e+00 1.393399953842163086e+00 0.000000000000000000e+00 0.000000000000000000e+00 0.000000000000000000e+00
1.878906250000000000e+00 1.089843750000000000e+00 1.287356853485107422e+00 5.333333333333333259e-01 5.215686274509804266e-01 5.058823529411764497e-01
3.128906250000000000e+00 1.417968750000000000e+00 1.356426239013671875e+00 3.764705882352941124e-01 4.509803921568627527e-01 5.882352941176470784e-01
1.574218750000000000e+00 2.394531250000000000e+00 1.395626068115234375e+00 5.843137254901961120e-01 5.529411764705882693e-01 5.098039215686274161e-01
2.847656250000000000e+00 1.839843750000000000e+00 1.388616085052490234e+00 4.039215686274509887e-01 3.647058823529411575e-01 3.019607843137254721e-01
2.542968750000000000e+00 1.269531250000000000e+00 1.340760350227355957e+00 5.215686274509804266e-01 5.294117647058823595e-01 5.372549019607842924e-01
2.847656250000000000e+00 9.804687500000000000e-01 1.320872664451599121e+00 4.862745098039215619e-01 5.019607843137254832e-01 5.137254901960783826e-01
2.039765834808349609e+00 1.207031250000000000e+00 1.308593750000000000e+00 5.372549019607842924e-01 5.294117647058823595e-01 5.137254901960783826e-01
1.847656250000000000e+00 1.488281250000000000e+00 1.329464793205261230e+00 6.313725490196078205e-01 5.999999999999999778e-01 5.607843137254902022e-01
1.761718750000000000e+00 1.464843750000000000e+00 1.319594621658325195e+00 6.627450980392156632e-01 6.235294117647058876e-01 5.803921568627451455e-01
3.457031250000000000e+00 1.308593750000000000e+00 1.345895648002624512e+00 2.627450980392156965e-01 1.686274509803921684e-01 1.215686274509803905e-01
3.160156250000000000e+00 1.222656250000000000e+00 1.356260299682617188e+00 7.058823529411765163e-01 6.549019607843137303e-01 6.235294117647058876e-01
2.488281250000000000e+00 2.402343750000000000e+00 1.447682261466979980e+00 5.137254901960783826e-01 5.294117647058823595e-01 5.450980392156862253e-01
2.277343750000000000e+00 1.199218750000000000e+00 1.321132898330688477e+00 5.215686274509804266e-01 5.215686274509804266e-01 5.137254901960783826e-01
1.178633928298950195e+00 2.261718750000000000e+00 1.347656250000000000e+00 5.294117647058823595e-01 4.862745098039215619e-01 4.235294117647058765e-01
1.230468750000000000e+00 1.512331247329711914e+00 1.277343750000000000e+00 6.823529411764706065e-01 6.235294117647058876e-01 5.568627450980392357e-01
1.660156250000000000e+00 2.449218750000000000e+00 1.411706209182739258e+00 5.607843137254902022e-01 5.372549019607842924e-01 5.019607843137254832e-01
2.152343750000000000e+00 1.683593750000000000e+00 1.357607841491699219e+00 5.450980392156862253e-01 5.450980392156862253e-01 5.372549019607842924e-01
1.566406250000000000e+00 1.847656250000000000e+00 7.366956472396850586e-01 9.137254901960784048e-01 7.960784313725489669e-01 6.627450980392156632e-01
2.711753606796264648e+00 2.160156250000000000e+00 1.402343750000000000e+00 1.764705882352941291e-01 1.137254901960784298e-01 5.098039215686274439e-02
1.738281250000000000e+00 1.152343750000000000e+00 1.282123923301696777e+00 5.686274509803921351e-01 5.490196078431373028e-01 5.254901960784313930e-01
1.324218750000000000e+00 2.074218750000000000e+00 1.334931135177612305e+00 7.019607843137254388e-01 6.392156862745097534e-01 5.764705882352940680e-01
2.128906250000000000e+00 8.314894437789916992e-01 1.199218750000000000e+00 5.686274509803921351e-01 5.372549019607842924e-01 5.215686274509804266e-01
2.616327047348022461e+00 1.324218750000000000e+00 1.347656250000000000e+00 5.098039215686274161e-01 5.254901960784313930e-01 5.372549019607842924e-01
2.167968750000000000e+00 1.402343750000000000e+00 1.333864569664001465e+00 5.333333333333333259e-01 5.333333333333333259e-01 5.176470588235294601e-01
3.488281250000000000e+00 9.521008133888244629e-01 1.332031250000000000e+00 4.745098039215686070e-01 4.941176470588235503e-01 5.098039215686274161e-01
1.628906250000000000e+00 2.449218750000000000e+00 1.407951593399047852e+00 5.607843137254902022e-01 5.333333333333333259e-01 4.941176470588235503e-01
1.933593750000000000e+00 1.386718750000000000e+00 1.324671030044555664e+00 5.725490196078431016e-01 5.568627450980392357e-01 5.254901960784313930e-01
1.417968750000000000e+00 1.199218750000000000e+00 1.262776494026184082e+00 5.686274509803921351e-01 5.411764705882352589e-01 5.019607843137254832e-01
3.386718750000000000e+00 1.273281335830688477e+00 1.339843750000000000e+00 0.000000000000000000e+00 0.000000000000000000e+00 0.000000000000000000e+00
2.503906250000000000e+00 1.714843750000000000e+00 1.384015321731567383e+00 5.215686274509804266e-01 5.372549019607842924e-01 5.450980392156862253e-01
1.902343750000000000e+00 2.511718750000000000e+00 1.430771112442016602e+00 5.333333333333333259e-01 5.294117647058823595e-01 5.137254901960783826e-01
1.917968750000000000e+00 1.933593750000000000e+00 1.378604650497436523e+00 5.960784313725490113e-01 5.764705882352940680e-01 5.529411764705882693e-01
1.472656250000000000e+00 2.285156250000000000e+00 1.378360271453857422e+00 6.352941176470587870e-01 5.843137254901961120e-01 5.215686274509804266e-01
1.181164860725402832e+00 2.644531250000000000e+00 1.238281250000000000e+00 0.000000000000000000e+00 0.000000000000000000e+00 0.000000000000000000e+00
3.074218750000000000e+00 8.519387245178222656e-01 1.144531250000000000e+00 5.294117647058823595e-01 5.215686274509804266e-01 5.254901960784313930e-01
1.181450486183166504e+00 2.449218750000000000e+00 1.128906250000000000e+00 5.411764705882352589e-01 4.901960784313725283e-01 4.274509803921568429e-01
3.003906250000000000e+00 2.300781250000000000e+00 1.473797917366027832e+00 4.745098039215686070e-01 4.941176470588235503e-01 5.098039215686274161e-01
2.285156250000000000e+00 2.490582942962646484e+00 1.339843750000000000e+00 0.000000000000000000e+00 0.000000000000000000e+00 0.000000000000000000e+00
1.425781250000000000e+00 2.652343750000000000e+00 1.401452302932739258e+00 5.058823529411764497e-01 4.745098039215686070e-01 4.431372549019607643e-01
1.180780053138732910e+00 1.175781250000000000e+00 1.011718750000000000e+00 5.137254901960783826e-01 4.666666666666666741e-01 4.078431372549019551e-01
3.472656250000000000e+00 8.877239823341369629e-01 1.324218750000000000e+00 5.019607843137254832e-01 5.176470588235294601e-01 5.333333333333333259e-01
2.691406250000000000e+00 2.464843750000000000e+00 1.466036438941955566e+00 4.862745098039215619e-01 4.980392156862745168e-01 5.137254901960783826e-01
2.394531250000000000e+00 8.554687500000000000e-01 1.289942026138305664e+00 4.941176470588235503e-01 5.058823529411764497e-01 5.058823529411764497e-01
1.185600996017456055e+00 1.464843750000000000e+00 1.105468750000000000e+00 6.078431372549019107e-01 5.372549019607842924e-01 4.392156862745097978e-01
3.292968750000000000e+00 1.488281250000000000e+00 1.370348691940307617e+00 4.196078431372549100e-01 4.784313725490196290e-01 6.117647058823529882e-01
1.503906250000000000e+00 9.335937500000000000e-01 1.245832204818725586e+00 5.333333333333333259e-01 5.176470588235294601e-01 5.019607843137254832e-01
1.691406250000000000e+00 2.324218750000000000e+00 1.401338338851928711e+00 6.156862745098039547e-01 5.803921568627451455e-01 5.333333333333333259e-01
2.683593750000000000e+00 1.089843750000000000e+00 1.324606537818908691e+00 5.058823529411764497e-01 5.215686274509804266e-01 5.254901960784313930e-01
1.628906250000000000e+00 8.305183649063110352e-01 1.207031250000000000e+00 5.960784313725490113e-01 5.607843137254902022e-01 5.333333333333333259e-01
2.308593750000000000e+00 2.097656250000000000e+00 1.413977026939392090e+00 5.372549019607842924e-01 5.529411764705882693e-01 5.607843137254902022e-01
2.425781250000000000e+00 2.501886129379272461e+00 1.191406250000000000e+00 0.000000000000000000e+00 0.000000000000000000e+00 0.000000000000000000e+00
1.736392021179199219e+00 2.746093750000000000e+00 1.425781250000000000e+00 0.000000000000000000e+00 0.000000000000000000e+00 0.000000000000000000e+00
1.652343750000000000e+00 1.128906250000000000e+00 1.273398280143737793e+00 5.450980392156862253e-01 5.254901960784313930e-01 4.980392156862745168e-01
2.402343750000000000e+00 1.347656250000000000e+00 1.340324997901916504e+00 5.176470588235294601e-01 5.254901960784313930e-01 5.215686274509804266e-01
1.683593750000000000e+00 2.045430421829223633e+00 8.710937500000000000e-01 7.686274509803922017e-01 6.705882352941175961e-01 5.647058823529411686e-01
2.457031250000000000e+00 1.535156250000000000e+00 1.361079096794128418e+00 5.215686274509804266e-01 5.372549019607842924e-01 5.411764705882352589e-01
3.207031250000000000e+00 2.402343750000000000e+00 1.503058910369873047e+00 0.000000000000000000e+00 0.000000000000000000e+00 0.000000000000000000e+00
2.660156250000000000e+00 2.292968750000000000e+00 1.444713473320007324e+00 5.019607843137254832e-01 5.254901960784313930e-01 5.411764705882352589e-01
3.394531250000000000e+00 9.257812500000000000e-01 1.351612091064453125e+00 4.823529411764705954e-01 5.019607843137254832e-01 5.176470588235294601e-01
1.613281250000000000e+00 2.050781250000000000e+00 1.367694616317749023e+00 6.352941176470587870e-01 5.725490196078431016e-01 4.980392156862745168e-01
2.675781250000000000e+00 1.394531250000000000e+00 1.355407953262329102e+00 5.058823529411764497e-01 5.254901960784313930e-01 5.411764705882352589e-01
2.605468750000000000e+00 1.613281250000000000e+00 1.376885890960693359e+00 5.254901960784313930e-01 5.372549019607842924e-01 5.568627450980392357e-01
3.222656250000000000e+00 1.917968750000000000e+00 1.418374657630920410e+00 2.705882352941176294e-01 2.666666666666666630e-01 2.509803921568627416e-01
3.128906250000000000e+00 8.398437500000000000e-01 1.198911070823669434e+00 5.254901960784313930e-01 5.176470588235294601e-01 5.176470588235294601e-01
3.371093750000000000e+00 9.947651624679565430e-01 1.355468750000000000e+00 4.784313725490196290e-01 4.941176470588235503e-01 5.058823529411764497e-01
2.667968750000000000e+00 2.503906250000000000e+00 1.465543508529663086e+00 4.784313725490196290e-01 4.588235294117646856e-01 4.470588235294117863e-01
2.972656250000000000e+00 1.792968750000000000e+00 1.390680909156799316e+00 2.941176470588235392e-01 2.705882352941176294e-01 2.470588235294117752e-01
2.222656250000000000e+00 1.345897912979125977e+00 1.332031250000000000e+00 5.372549019607842924e-01 5.333333333333333259e-01 5.254901960784313930e-01
2.808593750000000000e+00 1.660156250000000000e+00 1.367871761322021484e+00 6.039215686274509443e-01 6.313725490196078205e-01 6.862745098039215730e-01
3.121093750000000000e+00 1.800781250000000000e+00 1.402579188346862793e+00 3.098039215686274606e-01 2.901960784313725727e-01 2.666666666666666630e-01
2.371093750000000000e+00 1.066406250000000000e+00 1.311024904251098633e+00 4.980392156862745168e-01 5.058823529411764497e-01 5.019607843137254832e-01
1.543701171875000000e+00 2.347656250000000000e+00 9.570312500000000000e-01 4.039215686274509887e-01 3.882352941176470673e-01 3.725490196078431460e-01
2.628906250000000000e+00 1.613281250000000000e+00 1.377650380134582520e+00 5.215686274509804266e-01 5.411764705882352589e-01 5.568627450980392357e-01
2.949218750000000000e+00 2.175781250000000000e+00 1.435174703598022461e+00 6.313725490196078205e-01 6.549019607843137303e-01 7.019607843137254388e-01
2.292968750000000000e+00 1.871093750000000000e+00 1.387828230857849121e+00 5.411764705882352589e-01 5.450980392156862253e-01 5.529411764705882693e-01
3.253906250000000000e+00 1.597656250000000000e+00 1.383625388145446777e+00 4.470588235294117863e-01 4.823529411764705954e-01 5.607843137254902022e-01
2.058593750000000000e+00 1.050781250000000000e+00 1.295680761337280273e+00 5.294117647058823595e-01 5.254901960784313930e-01 5.176470588235294601e-01
1.183399677276611328e+00 1.566406250000000000e+00 1.277343750000000000e+00 6.627450980392156632e-01 6.039215686274509443e-01 5.254901960784313930e-01
1.707031250000000000e+00 1.574218750000000000e+00 1.328165411949157715e+00 6.941176470588235059e-01 6.431372549019608309e-01 5.686274509803921351e-01
1.816406250000000000e+00 8.374513983726501465e-01 1.261718750000000000e+00 5.058823529411764497e-01 4.901960784313725283e-01 4.705882352941176405e-01
3.417968750000000000e+00 1.488281250000000000e+00 1.381319880485534668e+00 5.176470588235294601e-01 5.450980392156862253e-01 6.549019607843137303e-01
1.542968750000000000e+00 2.292968750000000000e+00 9.666451215744018555e-01 4.549019607843137192e-01 4.313725490196078649e-01 4.156862745098039436e-01
2.433593750000000000e+00 8.410249352455139160e-01 1.152343750000000000e+00 5.372549019607842924e-01 5.176470588235294601e-01 5.058823529411764497e-01
1.990448713302612305e+00 2.402343750000000000e+00 1.425781250000000000e+00 5.450980392156862253e-01 5.411764705882352589e-01 5.294117647058823595e-01
3.292900562286376953e+00 1.847656250000000000e+00 1.417968750000000000e+00 2.078431372549019718e-01 1.921568627450980504e-01 1.882352941176470562e-01
3.269531250000000000e+00 2.182627439498901367e+00 1.457031250000000000e+00 0.000000000000000000e+00 0.000000000000000000e+00 0.000000000000000000e+00
1.238281250000000000e+00 2.464843750000000000e+00 1.365367889404296875e+00 5.686274509803921351e-01 5.411764705882352589e-01 5.098039215686274161e-01
